5.92 29.76 3.55 555 26 26 26
4.84 29.76 3.56 491 26 26 26
3.76 29.77 3.56 456 26 26 26
2.68 29.77 3.57 421 26 26 26
5.92 30.28 5.43 265 26 26 26
4.84 30.28 5.43 265 26 26 26
3.76 30.28 5.43 265 26 26 26
2.68 30.28 5.43 265 26 26 26
2.68 30.18 5.06 265 26 26 26
3.76 30.08 4.69 265 26 26 26
4.84 29.97 4.31 265 26 26 26
5.92 29.87 3.94 265 26 26 26
5.92 30.29 5.45 524 26 26 26
4.84 30.29 5.44 491 26 26 26
3.76 30.28 5.44 456 26 26 26
2.68 30.28 5.43 421 26 26 26
2.68 30.29 5.45 555 26 26 26
3.76 30.29 5.45 555 26 26 26
4.84 30.29 5.45 555 26 26 26
5.92 30.30 5.46 630 26 26 26
4.84 30.30 5.46 696 26 26 26
3.76 30.31 5.47 762 26 26 26
2.68 30.32 5.48 818 26 26 26
2.68 30.33 5.49 865 26 26 26
3.76 30.33 5.49 865 26 26 26
4.84 30.33 5.49 865 26 26 26
5.92 30.33 5.49 865 26 26 26
5.92 30.34 5.49 891 26 26 26
4.84 30.35 5.49 913 26 26 26
3.76 30.36 5.49 933 26 26 26
2.68 30.37 5.50 950 26 26 26
1.01 31.02 5.33 265 26 26 26
0.85 31.24 4.54 265 26 26 26
0.85 31.27 4.40 265 26 26 26
1.02 31.01 5.35 500 26 26 26
1.04 30.97 5.39 500 26 26 26
1.05 30.92 5.40 500 26 26 26
1.05 30.48 5.40 500 26 26 26
0.58 30.96 4.57 500 26 26 26
1.04 30.43 5.39 500 26 26 26
0.57 30.94 4.57 500 26 26 26
1.02 30.39 5.35 500 26 26 26
0.56 30.92 4.55 500 26 26 26
1.01 30.38 5.33 500 26 26 26
0.56 30.92 4.54 500 26 26 26
1.31 30.13 4.40 265 26 26 26
2.68 28.23 -5.50 -950 26 26 26
3.76 28.24 -5.49 -933 26 26 26
4.84 28.25 -5.49 -913 26 26 26
5.92 28.26 -5.49 -891 26 26 26
2.68 28.27 -5.49 -865 26 26 26
3.76 28.27 -5.49 -865 26 26 26
4.84 28.27 -5.49 -865 26 26 26
5.92 28.27 -5.49 -865 26 26 26
5.92 28.28 -5.48 -818 26 26 26
4.84 28.29 -5.47 -762 26 26 26
3.76 28.30 -5.46 -696 26 26 26
2.68 28.30 -5.46 -630 26 26 26
2.68 28.31 -5.45 -555 26 26 26
3.76 28.31 -5.45 -555 26 26 26
4.84 28.31 -5.45 -555 26 26 26
5.92 28.31 -5.45 -555 26 26 26
4.84 28.31 -5.44 -491 26 26 26
3.76 28.32 -5.44 -456 26 26 26
2.68 28.32 -5.43 -421 26 26 26
2.68 28.83 -3.57 -265 26 26 26
3.76 28.83 -3.57 -265 26 26 26
4.84 28.83 -3.57 -265 26 26 26
5.92 28.83 -3.57 -265 26 26 26
5.92 28.73 -3.94 -265 26 26 26
4.84 28.63 -4.31 -265 26 26 26
3.76 28.52 -4.69 -265 26 26 26
2.68 28.42 -5.06 -265 26 26 26
13.86 28.73 -3.47 -385 26 26 26
12.71 28.73 -3.47 -385 26 26 26
11.57 28.73 -3.47 -385 26 26 26
10.43 28.73 -3.47 -385 26 26 26
9.29 28.73 -3.47 -385 26 26 26
8.14 28.73 -3.47 -385 26 26 26
8.00 28.73 -3.47 -407 26 26 26
9.00 28.73 -3.47 -430 26 26 26
10.00 28.73 -3.46 -453 26 26 26
11.00 28.73 -3.46 -473 26 26 26
12.00 28.74 -3.46 -494 26 26 26
13.00 28.74 -3.46 -515 26 26 26
14.00 28.74 -3.45 -537 26 26 26
13.86 28.74 -3.45 -555 26 26 26
12.71 28.74 -3.45 -555 26 26 26
11.57 28.74 -3.45 -555 26 26 26
10.43 28.74 -3.45 -555 26 26 26
9.29 28.74 -3.45 -555 26 26 26
8.14 28.74 -3.45 -555 26 26 26
8.00 28.74 -3.45 -600 26 26 26
9.00 28.75 -3.44 -647 26 26 26
10.00 28.75 -3.44 -689 26 26 26
11.00 28.76 -3.43 -731 26 26 26
12.00 28.76 -3.43 -767 26 26 26
13.00 28.77 -3.42 -804 26 26 26
14.00 28.77 -3.42 -837 26 26 26
13.86 28.78 -3.41 -865 26 26 26
12.71 28.78 -3.41 -865 26 26 26
11.57 28.78 -3.41 -865 26 26 26
10.43 28.78 -3.41 -865 26 26 26
9.29 28.78 -3.41 -865 26 26 26
8.14 28.78 -3.41 -865 26 26 26
8.00 28.78 -3.41 -882 26 26 26
9.00 28.79 -3.41 -897 26 26 26
10.00 28.79 -3.41 -910 26 26 26
11.00 28.80 -3.41 -923 26 26 26
12.00 28.81 -3.41 -935 26 26 26
13.00 28.81 -3.40 -947 26 26 26
14.00 28.82 -3.40 -957 26 26 26
13.86 28.83 -3.40 -1000 26 26 26
12.71 28.83 -3.40 -1000 26 26 26
11.57 28.83 -3.40 -1000 26 26 26
10.43 28.83 -3.40 -1000 26 26 26
9.29 28.83 -3.40 -1000 26 26 26
8.14 28.83 -3.40 -1000 26 26 26
8.00 28.94 -3.40 -1000 26 26 26
9.00 29.06 -3.40 -1000 26 26 26
10.00 29.18 -3.40 -1000 26 26 26
11.00 29.30 -3.40 -1000 26 26 26
12.00 29.42 -3.40 -1000 26 26 26
13.00 29.54 -3.40 -1000 26 26 26
14.00 29.66 -3.40 -1000 26 26 26
2.68 28.84 -3.55 -524 26 26 26
3.76 28.84 -3.56 -491 26 26 26
4.84 28.83 -3.56 -456 26 26 26
5.92 28.83 -3.57 -421 26 26 26
3.76 28.84 -3.55 -555 26 26 26
4.84 28.84 -3.55 -555 26 26 26
5.92 28.84 -3.55 -555 26 26 26
5.92 28.85 -3.54 -630 26 26 26
4.84 28.85 -3.54 -696 26 26 26
3.76 28.86 -3.53 -762 26 26 26
2.68 28.87 -3.52 -818 26 26 26
2.68 28.88 -3.51 -865 26 26 26
3.76 28.88 -3.51 -865 26 26 26
4.84 28.88 -3.51 -865 26 26 26
5.92 28.88 -3.51 -865 26 26 26
5.92 28.89 -3.51 -891 26 26 26
4.84 28.90 -3.51 -913 26 26 26
3.76 28.91 -3.51 -933 26 26 26
2.68 28.92 -3.50 -950 26 26 26
2.68 28.93 -3.50 -1000 26 26 26
2.68 29.52 -3.50 -1000 26 26 26
3.76 28.93 -3.50 -1000 26 26 26
3.76 29.37 -3.50 -1000 26 26 26
4.84 28.93 -3.50 -1000 26 26 26
4.84 29.23 -3.50 -1000 26 26 26
5.92 28.93 -3.50 -1000 26 26 26
5.92 29.08 -3.50 -1000 26 26 26
2.68 29.67 -3.50 -1000 26 26 26
3.76 29.52 -3.50 -1000 26 26 26
4.84 29.37 -3.50 -1000 26 26 26
5.92 29.23 -3.50 -1000 26 26 26
7.00 29.08 -3.50 -1000 26 26 26
3.76 29.67 -3.50 -1000 26 26 26
4.84 29.52 -3.50 -1000 26 26 26
5.92 29.37 -3.50 -1000 26 26 26
7.00 29.23 -3.50 -1000 26 26 26
4.84 29.67 -3.50 -1000 26 26 26
5.92 29.52 -3.50 -1000 26 26 26
7.00 29.37 -3.50 -1000 26 26 26
5.92 29.67 -3.50 -1000 26 26 26
7.00 29.52 -3.50 -1000 26 26 26
2.68 29.71 -3.51 -891 26 26 26
3.76 29.70 -3.51 -913 26 26 26
4.84 29.69 -3.51 -933 26 26 26
5.92 29.68 -3.50 -950 26 26 26
2.68 29.72 -3.51 -865 26 26 26
3.76 29.72 -3.51 -865 26 26 26
4.84 29.72 -3.51 -865 26 26 26
5.92 29.72 -3.51 -865 26 26 26
5.92 29.76 -3.55 -524 26 26 26
4.84 29.76 -3.56 -491 26 26 26
3.76 29.77 -3.56 -456 26 26 26
2.68 29.77 -3.57 -421 26 26 26
2.68 30.28 -5.43 -265 26 26 26
3.76 30.28 -5.43 -265 26 26 26
4.84 30.28 -5.43 -265 26 26 26
5.92 30.28 -5.43 -265 26 26 26
5.92 30.18 -5.06 -265 26 26 26
4.84 30.08 -4.69 -265 26 26 26
3.76 29.97 -4.31 -265 26 26 26
2.68 29.87 -3.94 -265 26 26 26
13.86 29.77 -3.40 -966 26 26 26
12.71 29.77 -3.40 -966 26 26 26
11.57 29.77 -3.40 -966 26 26 26
10.43 29.77 -3.40 -966 26 26 26
9.29 29.77 -3.40 -966 26 26 26
8.14 29.77 -3.40 -966 26 26 26
8.00 29.78 -3.40 -957 26 26 26
9.00 29.79 -3.40 -947 26 26 26
10.00 29.79 -3.41 -935 26 26 26
11.00 29.80 -3.41 -923 26 26 26
12.00 29.81 -3.41 -910 26 26 26
13.00 29.81 -3.41 -897 26 26 26
14.00 29.82 -3.41 -882 26 26 26
13.86 29.82 -3.41 -865 26 26 26
12.71 29.82 -3.41 -865 26 26 26
11.57 29.82 -3.41 -865 26 26 26
10.43 29.82 -3.41 -865 26 26 26
9.29 29.82 -3.41 -865 26 26 26
8.14 29.82 -3.41 -865 26 26 26
8.00 29.83 -3.42 -837 26 26 26
9.00 29.83 -3.42 -804 26 26 26
10.00 29.84 -3.43 -767 26 26 26
11.00 29.84 -3.43 -731 26 26 26
12.00 29.85 -3.44 -689 26 26 26
13.00 29.85 -3.44 -647 26 26 26
14.00 29.86 -3.45 -600 26 26 26
8.00 29.86 -3.45 -537 26 26 26
9.00 29.86 -3.46 -515 26 26 26
10.00 29.86 -3.46 -494 26 26 26
11.00 29.87 -3.46 -473 26 26 26
12.00 29.87 -3.46 -453 26 26 26
14.00 29.87 -3.47 -407 26 26 26
13.86 29.87 -3.47 -265 26 26 26
12.71 29.87 -3.47 -265 26 26 26
11.57 29.87 -3.47 -265 26 26 26
10.43 29.87 -3.47 -265 26 26 26
9.29 29.87 -3.47 -265 26 26 26
8.14 29.87 -3.47 -265 26 26 26
8.00 29.93 -3.71 -265 26 26 26
9.00 30.00 -3.94 -265 26 26 26
10.00 30.06 -4.17 -265 26 26 26
11.00 30.13 -4.40 -265 26 26 26
12.00 30.19 -4.63 -265 26 26 26
13.00 30.25 -4.86 -265 26 26 26
14.00 30.32 -5.09 -265 26 26 26
3.76 30.28 -5.44 -456 26 26 26
4.84 30.29 -5.44 -491 26 26 26
5.92 30.29 -5.45 -524 26 26 26
5.92 30.29 -5.45 -555 26 26 26
4.84 30.29 -5.45 -555 26 26 26
3.76 30.29 -5.45 -555 26 26 26
2.68 30.29 -5.45 -555 26 26 26
2.68 30.34 -5.49 -891 26 26 26
4.84 30.36 -5.49 -933 26 26 26
5.92 30.37 -5.50 -950 26 26 26
8.14 30.38 -5.33 -385 26 26 26
8.14 30.39 -5.35 -533 26 26 26
9.29 30.38 -5.33 -385 26 26 26
9.29 30.39 -5.34 -509 26 26 26
10.43 30.38 -5.33 -385 26 26 26
10.43 30.39 -5.34 -485 26 26 26
11.57 30.38 -5.33 -385 26 26 26
11.57 30.38 -5.34 -461 26 26 26
12.71 30.38 -5.33 -385 26 26 26
13.86 30.38 -5.33 -385 26 26 26
13.86 30.38 -5.33 -410 26 26 26
14.00 30.38 -5.33 -407 26 26 26
13.00 30.38 -5.33 -430 26 26 26
12.00 30.38 -5.34 -453 26 26 26
11.00 30.38 -5.34 -473 26 26 26
10.00 30.39 -5.34 -494 26 26 26
9.00 30.39 -5.34 -515 26 26 26
8.00 30.39 -5.35 -537 26 26 26
13.86 30.39 -5.35 -555 26 26 26
12.71 30.39 -5.35 -555 26 26 26
10.43 30.39 -5.35 -555 26 26 26
8.00 30.39 -5.35 -600 26 26 26
9.00 30.40 -5.36 -647 26 26 26
10.00 30.40 -5.36 -689 26 26 26
11.00 30.41 -5.37 -731 26 26 26
12.00 30.41 -5.37 -767 26 26 26
13.00 30.42 -5.38 -804 26 26 26
14.00 30.42 -5.38 -837 26 26 26
10.00 30.44 -5.39 -910 26 26 26
11.00 30.45 -5.39 -923 26 26 26
12.00 30.46 -5.39 -935 26 26 26
13.00 30.46 -5.40 -947 26 26 26
14.00 30.47 -5.40 -957 26 26 26
2.68 31.02 -5.50 -1000 26 26 26
3.76 31.02 -5.50 -1000 26 26 26
4.84 31.02 -5.50 -1000 26 26 26
5.92 31.02 -5.50 -1000 26 26 26
5.92 30.89 -5.50 -1000 26 26 26
4.84 30.76 -5.50 -1000 26 26 26
3.76 30.64 -5.50 -1000 26 26 26
2.68 30.51 -5.50 -1000 26 26 26
13.86 30.48 -5.40 -1000 26 26 26
12.71 30.48 -5.40 -1000 26 26 26
11.57 30.48 -5.40 -1000 26 26 26
10.43 30.48 -5.40 -1000 26 26 26
9.29 30.48 -5.40 -1000 26 26 26
8.14 30.48 -5.40 -1000 26 26 26
8.00 30.53 -5.40 -1000 26 26 26
9.00 30.59 -5.40 -1000 26 26 26
10.00 30.64 -5.40 -1000 26 26 26
11.00 30.70 -5.40 -1000 26 26 26
12.00 30.76 -5.40 -1000 26 26 26
13.00 30.81 -5.40 -1000 26 26 26
14.00 30.87 -5.40 -1000 26 26 26
13.86 30.92 -5.40 -966 26 26 26
12.71 30.92 -5.40 -966 26 26 26
11.57 30.92 -5.40 -966 26 26 26
10.43 30.92 -5.40 -966 26 26 26
9.29 30.92 -5.40 -966 26 26 26
8.14 30.92 -5.40 -966 26 26 26
8.00 30.93 -5.40 -957 26 26 26
9.00 30.94 -5.40 -947 26 26 26
10.00 30.94 -5.39 -935 26 26 26
11.00 30.95 -5.39 -923 26 26 26
12.00 30.96 -5.39 -910 26 26 26
13.00 30.96 -5.39 -897 26 26 26
14.00 30.97 -5.39 -882 26 26 26
13.86 30.97 -5.39 -865 26 26 26
12.71 30.97 -5.39 -865 26 26 26
11.57 30.97 -5.39 -865 26 26 26
10.43 30.97 -5.39 -865 26 26 26
9.29 30.97 -5.39 -865 26 26 26
8.14 30.97 -5.39 -865 26 26 26
8.00 30.98 -5.38 -837 26 26 26
9.00 30.98 -5.38 -804 26 26 26
10.00 30.99 -5.37 -767 26 26 26
11.00 30.99 -5.37 -731 26 26 26
12.00 31.00 -5.36 -689 26 26 26
13.00 31.00 -5.36 -647 26 26 26
14.00 31.01 -5.35 -600 26 26 26
13.86 31.01 -5.35 -555 26 26 26
12.71 31.01 -5.35 -555 26 26 26
11.57 31.01 -5.35 -555 26 26 26
10.43 31.01 -5.35 -555 26 26 26
9.29 31.01 -5.35 -555 26 26 26
8.14 31.01 -5.35 -555 26 26 26
8.00 31.01 -5.35 -537 26 26 26
9.00 31.01 -5.34 -515 26 26 26
10.00 31.01 -5.34 -494 26 26 26
11.00 31.02 -5.34 -473 26 26 26
12.00 31.02 -5.34 -453 26 26 26
13.00 31.02 -5.33 -430 26 26 26
14.00 31.02 -5.33 -407 26 26 26
13.86 31.02 -5.33 -265 26 26 26
12.71 31.02 -5.33 -265 26 26 26
11.57 31.02 -5.33 -265 26 26 26
10.43 31.02 -5.33 -265 26 26 26
9.29 31.02 -5.33 -265 26 26 26
8.14 31.02 -5.33 -265 26 26 26
8.00 31.08 -5.09 -265 26 26 26
9.00 31.15 -4.86 -265 26 26 26
10.00 31.21 -4.63 -265 26 26 26
11.00 31.27 -4.40 -265 26 26 26
12.00 31.34 -4.17 -265 26 26 26
13.00 31.40 -3.94 -265 26 26 26
14.00 31.47 -3.71 -265 26 26 26
2.68 31.06 -5.49 -891 26 26 26
3.76 31.05 -5.49 -913 26 26 26
4.84 31.04 -5.49 -933 26 26 26
5.92 31.03 -5.50 -950 26 26 26
5.92 31.07 -5.49 -865 26 26 26
4.84 31.07 -5.49 -865 26 26 26
3.76 31.07 -5.49 -865 26 26 26
2.68 31.07 -5.49 -865 26 26 26
2.68 31.08 -5.48 -818 26 26 26
3.76 31.09 -5.47 -762 26 26 26
4.84 31.10 -5.46 -696 26 26 26
5.92 31.10 -5.46 -630 26 26 26
5.92 31.11 -5.45 -555 26 26 26
4.84 31.11 -5.45 -555 26 26 26
3.76 31.11 -5.45 -555 26 26 26
2.68 31.11 -5.45 -555 26 26 26
3.76 31.11 -5.44 -491 26 26 26
4.84 31.12 -5.44 -456 26 26 26
5.92 31.12 -5.43 -421 26 26 26
2.68 31.12 -5.43 -265 26 26 26
2.68 31.53 -3.94 -265 26 26 26
3.76 31.12 -5.43 -265 26 26 26
3.76 31.43 -4.31 -265 26 26 26
4.84 31.12 -5.43 -265 26 26 26
4.84 31.32 -4.69 -265 26 26 26
5.92 31.12 -5.43 -265 26 26 26
5.92 31.22 -5.06 -265 26 26 26
2.68 31.63 -3.57 -265 26 26 26
3.76 31.53 -3.94 -265 26 26 26
4.84 31.43 -4.31 -265 26 26 26
5.92 31.32 -4.69 -265 26 26 26
7.00 31.22 -5.06 -265 26 26 26
3.76 31.63 -3.57 -265 26 26 26
4.84 31.53 -3.94 -265 26 26 26
5.92 31.43 -4.31 -265 26 26 26
7.00 31.32 -4.69 -265 26 26 26
4.84 31.63 -3.57 -265 26 26 26
5.92 31.53 -3.94 -265 26 26 26
7.00 31.43 -4.31 -265 26 26 26
5.92 31.63 -3.57 -265 26 26 26
7.00 31.53 -3.94 -265 26 26 26
13.86 31.53 -3.47 -385 26 26 26
12.71 31.53 -3.47 -385 26 26 26
11.57 31.53 -3.47 -385 26 26 26
10.43 31.53 -3.47 -385 26 26 26
9.29 31.53 -3.47 -385 26 26 26
8.14 31.53 -3.47 -385 26 26 26
8.00 31.53 -3.47 -407 26 26 26
9.00 31.53 -3.47 -430 26 26 26
10.00 31.53 -3.46 -453 26 26 26
11.00 31.53 -3.46 -473 26 26 26
12.00 31.54 -3.46 -494 26 26 26
13.00 31.54 -3.46 -515 26 26 26
14.00 31.54 -3.45 -537 26 26 26
13.86 31.54 -3.45 -555 26 26 26
12.71 31.54 -3.45 -555 26 26 26
11.57 31.54 -3.45 -555 26 26 26
10.43 31.54 -3.45 -555 26 26 26
9.29 31.54 -3.45 -555 26 26 26
8.14 31.54 -3.45 -555 26 26 26
8.00 31.54 -3.45 -600 26 26 26
9.00 31.55 -3.44 -647 26 26 26
10.00 31.55 -3.44 -689 26 26 26
11.00 31.56 -3.43 -731 26 26 26
12.00 31.56 -3.43 -767 26 26 26
13.00 31.57 -3.42 -804 26 26 26
14.00 31.57 -3.42 -837 26 26 26
13.86 31.58 -3.41 -865 26 26 26
12.71 31.58 -3.41 -865 26 26 26
11.57 31.58 -3.41 -865 26 26 26
10.43 31.58 -3.41 -865 26 26 26
9.29 31.58 -3.41 -865 26 26 26
8.14 31.58 -3.41 -865 26 26 26
8.00 31.58 -3.41 -882 26 26 26
9.00 31.59 -3.41 -897 26 26 26
10.00 31.59 -3.41 -910 26 26 26
11.00 31.60 -3.41 -923 26 26 26
12.00 31.61 -3.41 -935 26 26 26
13.00 31.61 -3.40 -947 26 26 26
14.00 31.62 -3.40 -957 26 26 26
2.68 31.90 -3.50 0 26 26 26
2.68 31.90 -3.42 0 26 26 26
3.76 31.90 -3.50 0 26 26 26
3.76 31.90 -3.44 0 26 26 26
4.84 31.90 -3.50 0 26 26 26
4.84 31.90 -3.46 0 26 26 26
5.92 31.90 -3.50 0 26 26 26
5.92 31.90 -3.48 0 26 26 26
2.68 31.90 -3.40 0 26 26 26
3.76 31.90 -3.40 0 26 26 26
4.84 31.90 -3.40 0 26 26 26
5.92 31.90 -3.40 0 26 26 26
1.35 31.90 -2.27 0 26 26 26
2.48 31.90 -2.27 0 26 26 26
3.60 31.90 -2.27 0 26 26 26
4.72 31.90 -2.27 0 26 26 26
5.85 31.90 -2.27 0 26 26 26
1.10 31.90 -1.13 0 26 26 26
2.30 31.90 -1.13 0 26 26 26
3.50 31.90 -1.13 0 26 26 26
4.70 31.90 -1.13 0 26 26 26
0.85 31.90 -0.00 0 26 26 26
2.20 31.90 -0.00 0 26 26 26
3.55 31.90 -0.00 0 26 26 26
0.60 31.90 1.13 0 26 26 26
2.40 31.90 1.13 0 26 26 26
0.35 31.90 2.27 0 26 26 26
1.25 31.90 2.27 0 26 26 26
6.23 31.90 -2.64 0 26 26 26
5.47 31.90 -1.89 0 26 26 26
3.93 31.90 -0.38 0 26 26 26
3.17 31.90 0.38 0 26 26 26
1.63 31.90 1.89 0 26 26 26
0.87 31.90 2.64 0 26 26 26
0.91 31.90 2.64 0 26 26 26
1.72 31.90 1.89 0 26 26 26
2.53 31.90 1.13 0 26 26 26
3.34 31.90 0.38 0 26 26 26
4.16 31.90 -0.38 0 26 26 26
4.97 31.90 -1.13 0 26 26 26
5.78 31.90 -1.89 0 26 26 26
6.59 31.90 -2.64 0 26 26 26
6.67 31.90 -2.55 0 26 26 26
5.95 31.90 -1.70 0 26 26 26
5.23 31.90 -0.85 0 26 26 26
4.50 31.90 -0.00 0 26 26 26
3.78 31.90 0.85 0 26 26 26
3.05 31.90 1.70 0 26 26 26
2.33 31.90 2.55 0 26 26 26
7.33 31.90 -2.27 0 26 26 26
6.64 31.90 -1.46 0 26 26 26
5.95 31.90 -0.65 0 26 26 26
5.26 31.90 0.16 0 26 26 26
4.57 31.90 0.97 0 26 26 26
3.88 31.90 1.78 0 26 26 26
3.19 31.90 2.59 0 26 26 26
2.50 31.90 3.40 0 26 26 26
7.27 31.90 -1.13 0 26 26 26
6.49 31.90 -0.23 0 26 26 26
5.72 31.90 0.68 0 26 26 26
4.95 31.90 1.59 0 26 26 26
4.17 31.90 2.49 0 26 26 26
3.40 31.90 3.40 0 26 26 26
7.20 31.90 -0.00 0 26 26 26
6.48 31.90 0.85 0 26 26 26
5.75 31.90 1.70 0 26 26 26
5.03 31.90 2.55 0 26 26 26
4.30 31.90 3.40 0 26 26 26
7.13 31.90 1.13 0 26 26 26
6.17 31.90 2.27 0 26 26 26
5.20 31.90 3.40 0 26 26 26
7.07 31.90 2.27 0 26 26 26
6.10 31.90 3.40 0 26 26 26
2.68 31.90 3.40 0 26 26 26
3.76 31.90 3.40 0 26 26 26
4.84 31.90 3.40 0 26 26 26
5.92 31.90 3.40 0 26 26 26
5.92 31.90 3.42 0 26 26 26
4.84 31.90 3.44 0 26 26 26
3.76 31.90 3.46 0 26 26 26
2.68 31.90 3.48 0 26 26 26
0.10 31.90 -2.27 0 26 26 26
0.10 31.90 -1.13 0 26 26 26
0.10 31.90 -0.00 0 26 26 26
0.10 31.90 1.13 0 26 26 26
0.10 31.90 2.27 0 26 26 26
7.40 31.90 2.27 0 26 26 26
7.40 31.90 1.13 0 26 26 26
7.40 31.90 -0.00 0 26 26 26
7.40 31.90 -1.13 0 26 26 26
7.40 31.90 -2.27 0 26 26 26
5.92 31.87 -3.50 -1000 26 26 26
4.84 31.83 -3.50 -1000 26 26 26
3.76 31.80 -3.50 -1000 26 26 26
2.68 31.76 -3.50 -1000 26 26 26
5.92 31.73 -3.50 -966 26 26 26
5.92 31.69 -3.51 -891 26 26 26
4.84 31.73 -3.50 -966 26 26 26
4.84 31.70 -3.51 -913 26 26 26
3.76 31.73 -3.50 -966 26 26 26
3.76 31.71 -3.51 -933 26 26 26
2.68 31.73 -3.50 -966 26 26 26
2.68 31.72 -3.50 -950 26 26 26
2.68 31.68 -3.51 -865 26 26 26
3.76 31.68 -3.51 -865 26 26 26
4.84 31.68 -3.51 -865 26 26 26
5.92 31.68 -3.51 -865 26 26 26
5.92 31.67 -3.52 -818 26 26 26
4.84 31.66 -3.53 -762 26 26 26
3.76 31.65 -3.54 -696 26 26 26
2.68 31.65 -3.54 -630 26 26 26
5.92 31.64 -3.55 -555 26 26 26
4.84 31.64 -3.55 -555 26 26 26
3.76 31.64 -3.55 -555 26 26 26
2.68 31.64 -3.55 -555 26 26 26
3.76 31.64 -3.56 -491 26 26 26
4.84 31.63 -3.56 -456 26 26 26
5.92 31.63 -3.57 -421 26 26 26
2.68 31.90 3.50 1000 26 26 26
2.68 31.76 3.50 1000 26 26 26
3.76 31.90 3.50 1000 26 26 26
3.76 31.80 3.50 1000 26 26 26
4.84 31.90 3.50 1000 26 26 26
5.92 31.90 3.50 1000 26 26 26
5.92 31.87 3.50 1000 26 26 26
2.68 31.73 3.50 1000 26 26 26
3.76 31.76 3.50 1000 26 26 26
4.84 31.80 3.50 1000 26 26 26
5.92 31.83 3.50 1000 26 26 26
7.00 31.87 3.50 1000 26 26 26
3.76 31.73 3.50 1000 26 26 26
4.84 31.76 3.50 1000 26 26 26
5.92 31.80 3.50 1000 26 26 26
7.00 31.83 3.50 1000 26 26 26
4.84 31.73 3.50 1000 26 26 26
5.92 31.76 3.50 1000 26 26 26
7.00 31.80 3.50 1000 26 26 26
5.92 31.73 3.50 1000 26 26 26
7.00 31.76 3.50 1000 26 26 26
2.68 31.72 3.50 950 26 26 26
3.76 31.71 3.51 933 26 26 26
4.84 31.70 3.51 913 26 26 26
5.92 31.69 3.51 891 26 26 26
2.68 31.68 3.51 865 26 26 26
3.76 31.68 3.51 865 26 26 26
4.84 31.68 3.51 865 26 26 26
5.92 31.68 3.51 865 26 26 26
4.84 31.64 3.56 491 26 26 26
3.76 31.63 3.56 456 26 26 26
2.68 31.63 3.57 421 26 26 26
8.14 31.58 3.41 883 26 26 26
9.29 31.59 3.41 901 26 26 26
10.43 31.60 3.41 916 26 26 26
11.57 31.60 3.41 930 26 26 26
12.71 31.61 3.40 943 26 26 26
13.86 31.62 3.40 955 26 26 26
14.00 31.62 3.40 957 26 26 26
13.00 31.61 3.40 947 26 26 26
12.00 31.61 3.41 935 26 26 26
11.00 31.60 3.41 923 26 26 26
10.00 31.59 3.41 910 26 26 26
9.00 31.59 3.41 897 26 26 26
8.00 31.58 3.41 882 26 26 26
13.86 31.58 3.41 865 26 26 26
12.71 31.58 3.41 865 26 26 26
11.57 31.58 3.41 865 26 26 26
10.43 31.58 3.41 865 26 26 26
9.29 31.58 3.41 865 26 26 26
8.00 31.57 3.42 837 26 26 26
9.00 31.57 3.42 804 26 26 26
10.00 31.56 3.43 767 26 26 26
11.00 31.56 3.43 731 26 26 26
12.00 31.55 3.44 689 26 26 26
13.00 31.55 3.44 647 26 26 26
14.00 31.54 3.45 600 26 26 26
14.00 31.54 3.45 537 26 26 26
13.00 31.54 3.46 515 26 26 26
12.00 31.54 3.46 494 26 26 26
11.00 31.53 3.46 473 26 26 26
10.00 31.53 3.46 453 26 26 26
8.00 31.53 3.47 407 26 26 26
2.68 31.22 5.06 265 26 26 26
3.76 31.63 3.57 265 26 26 26
3.76 31.32 4.69 265 26 26 26
4.84 31.43 4.31 265 26 26 26
5.92 31.63 3.57 265 26 26 26
5.92 31.53 3.94 265 26 26 26
2.68 31.12 5.43 265 26 26 26
3.76 31.22 5.06 265 26 26 26
4.84 31.32 4.69 265 26 26 26
5.92 31.43 4.31 265 26 26 26
7.00 31.53 3.94 265 26 26 26
3.76 31.12 5.43 265 26 26 26
4.84 31.22 5.06 265 26 26 26
5.92 31.32 4.69 265 26 26 26
7.00 31.43 4.31 265 26 26 26
4.84 31.12 5.43 265 26 26 26
5.92 31.22 5.06 265 26 26 26
7.00 31.32 4.69 265 26 26 26
5.92 31.12 5.43 265 26 26 26
7.00 31.22 5.06 265 26 26 26
2.68 31.11 5.45 524 26 26 26
3.76 31.11 5.44 491 26 26 26
4.84 31.12 5.44 456 26 26 26
2.68 31.11 5.45 555 26 26 26
3.76 31.11 5.45 555 26 26 26
4.84 31.11 5.45 555 26 26 26
5.92 31.11 5.45 555 26 26 26
5.92 31.06 5.49 891 26 26 26
3.76 31.04 5.49 933 26 26 26
2.68 31.03 5.50 950 26 26 26
13.86 31.53 3.47 265 26 26 26
12.71 31.53 3.47 265 26 26 26
11.57 31.53 3.47 265 26 26 26
8.14 31.53 3.47 265 26 26 26
8.00 31.47 3.71 265 26 26 26
9.00 31.40 3.94 265 26 26 26
10.00 31.34 4.17 265 26 26 26
11.00 31.27 4.40 265 26 26 26
12.00 31.21 4.63 265 26 26 26
13.00 31.15 4.86 265 26 26 26
14.00 31.08 5.09 265 26 26 26
13.86 31.02 5.33 385 26 26 26
12.71 31.02 5.33 385 26 26 26
11.57 31.02 5.33 385 26 26 26
10.43 31.02 5.33 385 26 26 26
9.29 31.02 5.33 385 26 26 26
8.14 31.02 5.33 385 26 26 26
8.00 31.02 5.33 407 26 26 26
9.00 31.02 5.33 430 26 26 26
10.00 31.02 5.34 453 26 26 26
11.00 31.02 5.34 473 26 26 26
12.00 31.01 5.34 494 26 26 26
13.00 31.01 5.34 515 26 26 26
14.00 31.01 5.35 537 26 26 26
8.14 31.01 5.35 555 26 26 26
9.29 31.01 5.35 555 26 26 26
10.43 31.01 5.35 555 26 26 26
11.57 31.01 5.35 555 26 26 26
12.71 31.01 5.35 555 26 26 26
13.86 31.01 5.35 555 26 26 26
14.00 31.01 5.35 600 26 26 26
13.00 31.00 5.36 647 26 26 26
12.00 31.00 5.36 689 26 26 26
11.00 30.99 5.37 731 26 26 26
10.00 30.99 5.37 767 26 26 26
9.00 30.98 5.38 804 26 26 26
8.00 30.98 5.38 837 26 26 26
8.00 30.97 5.39 882 26 26 26
10.00 30.96 5.39 910 26 26 26
11.00 30.95 5.39 923 26 26 26
12.00 30.94 5.39 935 26 26 26
13.00 30.94 5.40 947 26 26 26
14.00 30.93 5.40 957 26 26 26
13.86 30.92 5.40 1000 26 26 26
12.71 30.92 5.40 1000 26 26 26
11.57 30.92 5.40 1000 26 26 26
10.43 30.92 5.40 1000 26 26 26
9.29 30.92 5.40 1000 26 26 26
8.14 30.92 5.40 1000 26 26 26
8.00 30.87 5.40 1000 26 26 26
9.00 30.81 5.40 1000 26 26 26
10.00 30.76 5.40 1000 26 26 26
11.00 30.70 5.40 1000 26 26 26
12.00 30.64 5.40 1000 26 26 26
13.00 30.59 5.40 1000 26 26 26
14.00 30.53 5.40 1000 26 26 26
13.86 30.48 5.40 966 26 26 26
12.71 30.48 5.40 966 26 26 26
11.57 30.48 5.40 966 26 26 26
10.43 30.48 5.40 966 26 26 26
9.29 30.48 5.40 966 26 26 26
8.14 30.48 5.40 966 26 26 26
8.00 30.47 5.40 957 26 26 26
9.00 30.46 5.40 947 26 26 26
10.00 30.46 5.39 935 26 26 26
11.00 30.45 5.39 923 26 26 26
12.00 30.44 5.39 910 26 26 26
13.00 30.44 5.39 897 26 26 26
14.00 30.43 5.39 882 26 26 26
8.14 30.43 5.39 865 26 26 26
9.29 30.43 5.39 865 26 26 26
10.43 30.43 5.39 865 26 26 26
11.57 30.43 5.39 865 26 26 26
12.71 30.43 5.39 865 26 26 26
13.86 30.43 5.39 865 26 26 26
14.00 30.42 5.38 837 26 26 26
13.00 30.42 5.38 804 26 26 26
12.00 30.41 5.37 767 26 26 26
11.00 30.41 5.37 731 26 26 26
10.00 30.40 5.36 689 26 26 26
9.00 30.40 5.36 647 26 26 26
8.00 30.39 5.35 600 26 26 26
8.14 30.39 5.35 555 26 26 26
9.29 30.39 5.35 555 26 26 26
10.43 30.39 5.35 555 26 26 26
11.57 30.39 5.35 555 26 26 26
12.71 30.39 5.35 555 26 26 26
13.86 30.39 5.35 555 26 26 26
14.00 30.39 5.35 537 26 26 26
13.00 30.39 5.34 515 26 26 26
12.00 30.39 5.34 494 26 26 26
11.00 30.38 5.34 473 26 26 26
10.00 30.38 5.34 453 26 26 26
9.00 30.38 5.33 430 26 26 26
8.00 30.38 5.33 407 26 26 26
21.46 33.70 2.00 0 26 26 26
21.46 33.70 0.87 0 26 26 26
21.46 33.70 -0.26 0 26 26 26
21.46 33.70 -1.40 0 26 26 26
21.02 33.70 0.61 0 26 26 26
21.24 33.70 -0.39 0 26 26 26
21.68 33.70 -2.40 0 26 26 26
21.10 33.70 -0.00 0 26 26 26
21.37 33.70 -1.13 0 26 26 26
21.63 33.70 -2.27 0 26 26 26
21.02 33.70 -0.61 0 26 26 26
21.46 33.70 -2.00 0 26 26 26
20.79 33.70 -1.18 0 26 26 26
21.34 33.70 -2.29 0 26 26 26
20.41 33.70 -1.66 0 26 26 26
21.16 33.70 -2.53 0 26 26 26
19.93 33.70 -2.04 0 26 26 26
20.91 33.70 -2.72 0 26 26 26
19.36 33.70 -2.27 0 26 26 26
20.63 33.70 -2.84 0 26 26 26
18.75 33.70 -2.35 0 26 26 26
20.85 33.70 -3.05 0 26 26 26
19.80 33.70 -2.70 0 26 26 26
20.89 33.70 -3.30 0 26 26 26
19.93 33.70 -2.99 0 26 26 26
18.98 33.70 -2.67 0 26 26 26
18.02 33.70 -2.35 0 26 26 26
19.87 33.70 -3.21 0 26 26 26
18.58 33.70 -2.78 0 26 26 26
17.30 33.70 -2.35 0 26 26 26
18.86 33.70 -3.11 0 26 26 26
17.71 33.70 -2.73 0 26 26 26
16.57 33.70 -2.35 0 26 26 26
17.85 33.70 -3.02 0 26 26 26
16.84 33.70 -2.69 0 26 26 26
15.84 33.70 -2.35 0 26 26 26
16.83 33.70 -2.92 0 26 26 26
15.11 33.70 -2.35 0 26 26 26
15.82 33.70 -2.83 0 26 26 26
14.39 33.70 -2.35 0 26 26 26
14.80 33.70 -2.73 0 26 26 26
13.66 33.70 -2.35 0 26 26 26
13.79 33.70 -2.64 0 26 26 26
12.93 33.70 -2.35 0 26 26 26
12.78 33.70 -2.54 0 26 26 26
12.20 33.70 -2.35 0 26 26 26
11.76 33.70 -2.45 0 26 26 26
11.48 33.70 -2.35 0 26 26 26
10.75 33.70 -2.35 0 26 26 26
11.89 33.70 -2.35 0 26 26 26
13.04 33.70 -2.35 0 26 26 26
14.18 33.70 -2.35 0 26 26 26
15.32 33.70 -2.35 0 26 26 26
16.46 33.70 -2.35 0 26 26 26
17.61 33.70 -2.35 0 26 26 26
11.36 33.70 -2.27 0 26 26 26
17.69 33.70 -2.34 0 26 26 26
16.64 33.70 -2.33 0 26 26 26
15.58 33.70 -2.32 0 26 26 26
14.53 33.70 -2.31 0 26 26 26
13.47 33.70 -2.30 0 26 26 26
12.41 33.70 -2.28 0 26 26 26
18.14 33.70 -2.27 0 26 26 26
12.49 33.70 -2.27 0 26 26 26
13.62 33.70 -2.27 0 26 26 26
14.75 33.70 -2.27 0 26 26 26
15.88 33.70 -2.27 0 26 26 26
17.01 33.70 -2.27 0 26 26 26
11.93 33.70 -2.04 0 26 26 26
17.11 33.70 -2.23 0 26 26 26
16.07 33.70 -2.19 0 26 26 26
15.03 33.70 -2.16 0 26 26 26
14.00 33.70 -2.12 0 26 26 26
12.96 33.70 -2.08 0 26 26 26
17.57 33.70 -2.04 0 26 26 26
13.06 33.70 -2.04 0 26 26 26
14.19 33.70 -2.04 0 26 26 26
15.31 33.70 -2.04 0 26 26 26
16.44 33.70 -2.04 0 26 26 26
12.41 33.70 -1.66 0 26 26 26
16.54 33.70 -1.96 0 26 26 26
15.51 33.70 -1.89 0 26 26 26
14.48 33.70 -1.81 0 26 26 26
13.45 33.70 -1.74 0 26 26 26
17.09 33.70 -1.66 0 26 26 26
13.58 33.70 -1.66 0 26 26 26
14.75 33.70 -1.66 0 26 26 26
15.92 33.70 -1.66 0 26 26 26
12.79 33.70 -1.18 0 26 26 26
16.01 33.70 -1.54 0 26 26 26
14.94 33.70 -1.42 0 26 26 26
13.86 33.70 -1.30 0 26 26 26
16.71 33.70 -1.18 0 26 26 26
14.10 33.70 -1.18 0 26 26 26
15.40 33.70 -1.18 0 26 26 26
13.02 33.70 -0.61 0 26 26 26
15.48 33.70 -0.99 0 26 26 26
14.25 33.70 -0.80 0 26 26 26
16.48 33.70 -0.61 0 26 26 26
15.33 33.70 -0.61 0 26 26 26
14.17 33.70 -0.61 0 26 26 26
16.40 33.70 -0.00 0 26 26 26
14.15 33.70 -0.41 0 26 26 26
15.27 33.70 -0.20 0 26 26 26
13.10 33.70 -0.00 0 26 26 26
14.20 33.70 -0.00 0 26 26 26
15.30 33.70 -0.00 0 26 26 26
13.02 33.70 0.61 0 26 26 26
15.27 33.70 0.20 0 26 26 26
14.15 33.70 0.41 0 26 26 26
16.48 33.70 0.61 0 26 26 26
14.17 33.70 0.61 0 26 26 26
15.33 33.70 0.61 0 26 26 26
12.79 33.70 1.18 0 26 26 26
15.25 33.70 0.80 0 26 26 26
14.02 33.70 0.99 0 26 26 26
16.71 33.70 1.18 0 26 26 26
14.10 33.70 1.18 0 26 26 26
15.40 33.70 1.18 0 26 26 26
12.41 33.70 1.66 0 26 26 26
15.64 33.70 1.30 0 26 26 26
14.56 33.70 1.42 0 26 26 26
13.49 33.70 1.54 0 26 26 26
17.09 33.70 1.66 0 26 26 26
13.58 33.70 1.66 0 26 26 26
14.75 33.70 1.66 0 26 26 26
15.92 33.70 1.66 0 26 26 26
11.93 33.70 2.04 0 26 26 26
16.05 33.70 1.74 0 26 26 26
15.02 33.70 1.81 0 26 26 26
13.99 33.70 1.89 0 26 26 26
12.96 33.70 1.96 0 26 26 26
17.57 33.70 2.04 0 26 26 26
13.06 33.70 2.04 0 26 26 26
14.19 33.70 2.04 0 26 26 26
15.31 33.70 2.04 0 26 26 26
16.44 33.70 2.04 0 26 26 26
11.36 33.70 2.27 0 26 26 26
16.54 33.70 2.08 0 26 26 26
15.50 33.70 2.12 0 26 26 26
14.47 33.70 2.16 0 26 26 26
13.43 33.70 2.19 0 26 26 26
12.39 33.70 2.23 0 26 26 26
18.14 33.70 2.27 0 26 26 26
12.49 33.70 2.27 0 26 26 26
13.62 33.70 2.27 0 26 26 26
14.75 33.70 2.27 0 26 26 26
15.88 33.70 2.27 0 26 26 26
17.01 33.70 2.27 0 26 26 26
10.75 33.70 2.35 0 26 26 26
17.09 33.70 2.28 0 26 26 26
16.03 33.70 2.30 0 26 26 26
14.97 33.70 2.31 0 26 26 26
13.92 33.70 2.32 0 26 26 26
12.86 33.70 2.33 0 26 26 26
11.81 33.70 2.34 0 26 26 26
18.75 33.70 2.35 0 26 26 26
11.89 33.70 2.35 0 26 26 26
13.04 33.70 2.35 0 26 26 26
14.18 33.70 2.35 0 26 26 26
15.32 33.70 2.35 0 26 26 26
16.46 33.70 2.35 0 26 26 26
17.61 33.70 2.35 0 26 26 26
9.63 33.70 2.70 0 26 26 26
10.70 33.70 2.70 0 26 26 26
11.77 33.70 2.70 0 26 26 26
12.83 33.70 2.70 0 26 26 26
13.90 33.70 2.70 0 26 26 26
14.97 33.70 2.70 0 26 26 26
8.52 33.70 3.05 0 26 26 26
9.85 33.70 3.05 0 26 26 26
11.18 33.70 3.05 0 26 26 26
8.43 33.70 3.30 0 26 26 26
9.46 33.70 3.21 0 26 26 26
10.50 33.70 3.11 0 26 26 26
11.53 33.70 3.02 0 26 26 26
12.56 33.70 2.92 0 26 26 26
13.59 33.70 2.83 0 26 26 26
14.62 33.70 2.73 0 26 26 26
15.65 33.70 2.64 0 26 26 26
16.69 33.70 2.54 0 26 26 26
17.72 33.70 2.45 0 26 26 26
9.49 33.70 3.30 0 26 26 26
10.54 33.70 3.21 0 26 26 26
11.60 33.70 3.11 0 26 26 26
12.65 33.70 3.01 0 26 26 26
13.71 33.70 2.91 0 26 26 26
14.76 33.70 2.82 0 26 26 26
15.81 33.70 2.72 0 26 26 26
16.87 33.70 2.62 0 26 26 26
17.92 33.70 2.53 0 26 26 26
18.97 33.70 2.43 0 26 26 26
10.55 33.70 3.30 0 26 26 26
11.63 33.70 3.20 0 26 26 26
12.71 33.70 3.10 0 26 26 26
13.80 33.70 3.00 0 26 26 26
14.88 33.70 2.90 0 26 26 26
15.96 33.70 2.80 0 26 26 26
17.04 33.70 2.70 0 26 26 26
18.12 33.70 2.60 0 26 26 26
19.20 33.70 2.50 0 26 26 26
11.62 33.70 3.30 0 26 26 26
12.74 33.70 3.19 0 26 26 26
13.85 33.70 3.09 0 26 26 26
14.97 33.70 2.99 0 26 26 26
16.08 33.70 2.89 0 26 26 26
17.20 33.70 2.78 0 26 26 26
18.31 33.70 2.68 0 26 26 26
19.42 33.70 2.58 0 26 26 26
12.56 33.70 3.31 0 26 26 26
13.57 33.70 3.21 0 26 26 26
14.58 33.70 3.12 0 26 26 26
15.60 33.70 3.03 0 26 26 26
16.61 33.70 2.93 0 26 26 26
17.62 33.70 2.84 0 26 26 26
18.64 33.70 2.75 0 26 26 26
19.65 33.70 2.65 0 26 26 26
13.62 33.70 3.30 0 26 26 26
14.66 33.70 3.21 0 26 26 26
15.71 33.70 3.11 0 26 26 26
16.75 33.70 3.02 0 26 26 26
17.79 33.70 2.92 0 26 26 26
18.83 33.70 2.82 0 26 26 26
19.88 33.70 2.73 0 26 26 26
14.70 33.70 3.30 0 26 26 26
15.78 33.70 3.20 0 26 26 26
16.86 33.70 3.10 0 26 26 26
17.94 33.70 3.00 0 26 26 26
19.02 33.70 2.90 0 26 26 26
20.10 33.70 2.80 0 26 26 26
15.78 33.70 3.30 0 26 26 26
16.92 33.70 3.19 0 26 26 26
18.06 33.70 3.09 0 26 26 26
19.19 33.70 2.98 0 26 26 26
20.33 33.70 2.88 0 26 26 26
16.90 33.70 3.29 0 26 26 26
18.12 33.70 3.18 0 26 26 26
19.33 33.70 3.06 0 26 26 26
20.55 33.70 2.95 0 26 26 26
17.73 33.70 3.31 0 26 26 26
18.75 33.70 3.21 0 26 26 26
19.76 33.70 3.12 0 26 26 26
20.77 33.70 3.03 0 26 26 26
18.84 33.70 3.30 0 26 26 26
19.92 33.70 3.20 0 26 26 26
21.00 33.70 3.10 0 26 26 26
20.01 33.70 3.29 0 26 26 26
21.23 33.70 3.18 0 26 26 26
21.45 33.70 3.25 0 26 26 26
21.67 33.70 3.33 0 26 26 26
19.80 33.70 2.70 0 26 26 26
20.85 33.70 3.05 0 26 26 26
19.36 33.70 2.27 0 26 26 26
20.63 33.70 2.84 0 26 26 26
19.93 33.70 2.04 0 26 26 26
20.91 33.70 2.72 0 26 26 26
20.41 33.70 1.66 0 26 26 26
21.16 33.70 2.53 0 26 26 26
20.79 33.70 1.18 0 26 26 26
21.34 33.70 2.29 0 26 26 26
20.91 33.70 0.89 0 26 26 26
10.14 33.70 2.27 0 26 26 26
9.23 33.70 2.65 0 26 26 26
8.31 33.70 3.02 0 26 26 26
8.77 33.70 2.84 0 26 26 26
9.57 33.70 2.04 0 26 26 26
8.49 33.70 2.72 0 26 26 26
9.09 33.70 1.66 0 26 26 26
8.24 33.70 2.53 0 26 26 26
8.71 33.70 1.18 0 26 26 26
8.06 33.70 2.29 0 26 26 26
8.48 33.70 0.61 0 26 26 26
7.94 33.70 2.00 0 26 26 26
7.85 33.70 1.10 0 26 26 26
8.30 33.70 -0.06 0 26 26 26
8.12 33.70 -0.73 0 26 26 26
7.94 33.70 -1.40 0 26 26 26
7.76 33.70 -2.06 0 26 26 26
7.58 33.70 -2.73 0 26 26 26
8.21 33.70 -0.39 0 26 26 26
7.67 33.70 -2.40 0 26 26 26
8.40 33.70 -0.00 0 26 26 26
8.06 33.70 -1.13 0 26 26 26
7.73 33.70 -2.27 0 26 26 26
8.48 33.70 -0.61 0 26 26 26
7.94 33.70 -2.00 0 26 26 26
8.71 33.70 -1.18 0 26 26 26
8.06 33.70 -2.29 0 26 26 26
9.09 33.70 -1.66 0 26 26 26
8.24 33.70 -2.53 0 26 26 26
9.57 33.70 -2.04 0 26 26 26
8.49 33.70 -2.72 0 26 26 26
10.14 33.70 -2.27 0 26 26 26
8.77 33.70 -2.84 0 26 26 26
8.52 33.70 -3.05 0 26 26 26
9.63 33.70 -2.70 0 26 26 26
9.47 33.70 -3.08 0 26 26 26
10.51 33.70 -2.75 0 26 26 26
11.55 33.70 -2.43 0 26 26 26
10.43 33.70 -3.10 0 26 26 26
11.39 33.70 -2.80 0 26 26 26
12.34 33.70 -2.50 0 26 26 26
11.82 33.70 -2.99 0 26 26 26
13.14 33.70 -2.58 0 26 26 26
12.74 33.70 -3.03 0 26 26 26
13.94 33.70 -2.65 0 26 26 26
13.66 33.70 -3.06 0 26 26 26
14.73 33.70 -2.73 0 26 26 26
14.57 33.70 -3.10 0 26 26 26
15.53 33.70 -2.80 0 26 26 26
16.33 33.70 -2.88 0 26 26 26
17.12 33.70 -2.95 0 26 26 26
17.92 33.70 -3.03 0 26 26 26
18.71 33.70 -3.10 0 26 26 26
19.51 33.70 -3.18 0 26 26 26
20.31 33.70 -3.25 0 26 26 26
21.10 33.70 -3.33 0 26 26 26
19.75 33.35 1.73 -612 26 26 26
19.27 33.35 1.93 -684 26 26 26
18.75 33.35 2.00 -707 26 26 26
18.23 33.35 1.93 -684 26 26 26
17.75 33.35 1.73 -612 26 26 26
17.34 33.35 1.41 -500 26 26 26
17.02 33.35 1.00 -352 26 26 26
16.82 33.35 0.52 -184 26 26 26
16.75 33.35 -0.00 0 26 26 26
16.82 33.35 -0.52 184 26 26 26
17.02 33.35 -1.00 352 26 26 26
17.34 33.35 -1.41 500 26 26 26
17.75 33.35 -1.73 612 26 26 26
18.23 33.35 -1.93 684 26 26 26
18.75 33.35 -2.00 707 26 26 26
19.27 33.35 -1.93 684 26 26 26
19.75 33.35 -1.73 612 26 26 26
20.16 33.35 -1.41 500 26 26 26
20.48 33.35 -1.00 352 26 26 26
20.68 33.35 -0.52 184 26 26 26
20.75 33.35 -0.00 0 26 26 26
20.68 33.35 0.52 -184 26 26 26
20.48 33.35 1.00 -352 26 26 26
20.16 33.35 1.41 -500 26 26 26
19.70 31.60 1.65 -865 26 26 26
19.24 31.60 1.84 -966 26 26 26
18.75 31.60 1.90 -1000 26 26 26
18.26 31.60 1.84 -966 26 26 26
17.80 31.60 1.65 -865 26 26 26
17.41 31.60 1.34 -707 26 26 26
17.10 31.60 0.95 -500 26 26 26
16.91 31.60 0.49 -257 26 26 26
16.85 31.60 -0.00 0 26 26 26
16.91 31.60 -0.49 257 26 26 26
17.10 31.60 -0.95 500 26 26 26
17.41 31.60 -1.34 707 26 26 26
17.80 31.60 -1.65 865 26 26 26
18.26 31.60 -1.84 966 26 26 26
18.75 31.60 -1.90 1000 26 26 26
19.24 31.60 -1.84 966 26 26 26
19.70 31.60 -1.65 865 26 26 26
20.09 31.60 -1.34 707 26 26 26
20.40 31.60 -0.95 500 26 26 26
20.59 31.60 -0.49 257 26 26 26
20.65 31.60 -0.00 0 26 26 26
20.59 31.60 0.49 -257 26 26 26
20.40 31.60 0.95 -500 26 26 26
20.09 31.60 1.34 -707 26 26 26
19.25 31.27 0.87 -295 26 26 26
19.01 31.27 0.97 -329 26 26 26
18.75 31.27 1.01 -341 26 26 26
18.49 31.27 0.97 -329 26 26 26
18.25 31.27 0.87 -295 26 26 26
18.04 31.27 0.71 -242 26 26 26
17.88 31.27 0.50 -169 26 26 26
17.78 31.27 0.26 -88 26 26 26
17.74 31.27 -0.00 0 26 26 26
17.78 31.27 -0.26 88 26 26 26
17.88 31.27 -0.50 169 26 26 26
18.04 31.27 -0.71 242 26 26 26
18.25 31.27 -0.87 295 26 26 26
18.49 31.27 -0.97 329 26 26 26
18.75 31.27 -1.01 341 26 26 26
19.01 31.27 -0.97 329 26 26 26
19.25 31.27 -0.87 295 26 26 26
19.46 31.27 -0.71 242 26 26 26
19.62 31.27 -0.50 169 26 26 26
19.72 31.27 -0.26 88 26 26 26
19.76 31.27 -0.00 0 26 26 26
19.72 31.27 0.26 -88 26 26 26
19.62 31.27 0.50 -169 26 26 26
19.46 31.27 0.71 -242 26 26 26
19.20 30.20 0.89 -891 26 26 26
19.16 29.13 0.91 -913 26 26 26
19.11 28.05 0.93 -933 26 26 26
19.06 26.98 0.95 -950 26 26 26
19.01 25.90 0.97 -966 26 26 26
19.01 26.98 0.97 -966 26 26 26
19.01 28.05 0.97 -966 26 26 26
19.01 29.13 0.97 -966 26 26 26
19.01 30.20 0.97 -966 26 26 26
18.75 25.90 1.01 -1000 26 26 26
18.96 30.20 0.98 -978 26 26 26
18.91 29.13 0.99 -987 26 26 26
18.85 28.05 0.99 -994 26 26 26
18.80 26.98 1.00 -998 26 26 26
18.75 26.98 1.01 -1000 26 26 26
18.75 28.05 1.01 -1000 26 26 26
18.75 29.13 1.01 -1000 26 26 26
18.75 30.20 1.01 -1000 26 26 26
18.49 25.90 0.97 -966 26 26 26
18.70 30.20 1.00 -998 26 26 26
18.65 29.13 0.99 -994 26 26 26
18.59 28.05 0.99 -987 26 26 26
18.54 26.98 0.98 -978 26 26 26
18.49 26.98 0.97 -966 26 26 26
18.49 28.05 0.97 -966 26 26 26
18.49 29.13 0.97 -966 26 26 26
18.49 30.20 0.97 -966 26 26 26
18.25 25.90 0.87 -865 26 26 26
18.44 30.20 0.95 -950 26 26 26
18.39 29.13 0.93 -933 26 26 26
18.34 28.05 0.91 -913 26 26 26
18.30 26.98 0.89 -891 26 26 26
18.25 26.98 0.87 -865 26 26 26
18.25 28.05 0.87 -865 26 26 26
18.25 29.13 0.87 -865 26 26 26
18.25 30.20 0.87 -865 26 26 26
18.04 25.90 0.71 -707 26 26 26
18.21 30.20 0.84 -839 26 26 26
18.16 29.13 0.81 -809 26 26 26
18.12 28.05 0.78 -776 26 26 26
18.08 26.98 0.74 -744 26 26 26
18.04 26.98 0.71 -707 26 26 26
18.04 28.05 0.71 -707 26 26 26
18.04 29.13 0.71 -707 26 26 26
18.04 30.20 0.71 -707 26 26 26
17.88 25.90 0.50 -500 26 26 26
18.01 30.20 0.67 -668 26 26 26
17.97 29.13 0.63 -630 26 26 26
17.94 28.05 0.59 -587 26 26 26
17.91 26.98 0.54 -543 26 26 26
17.88 26.98 0.50 -500 26 26 26
17.88 28.05 0.50 -500 26 26 26
17.88 29.13 0.50 -500 26 26 26
17.88 30.20 0.50 -500 26 26 26
17.78 25.90 0.26 -257 26 26 26
17.86 30.20 0.45 -453 26 26 26
17.84 29.13 0.41 -407 26 26 26
17.82 28.05 0.36 -358 26 26 26
17.80 26.98 0.31 -309 26 26 26
17.78 26.98 0.26 -257 26 26 26
17.78 28.05 0.26 -257 26 26 26
17.78 29.13 0.26 -257 26 26 26
17.78 30.20 0.26 -257 26 26 26
17.74 25.90 -0.00 0 26 26 26
17.77 30.20 0.21 -207 26 26 26
17.76 29.13 0.16 -157 26 26 26
17.76 28.05 0.10 -103 26 26 26
17.75 26.98 0.05 -52 26 26 26
17.74 26.98 -0.00 0 26 26 26
17.74 28.05 -0.00 0 26 26 26
17.74 29.13 -0.00 0 26 26 26
17.74 30.20 -0.00 0 26 26 26
17.78 25.90 -0.26 257 26 26 26
17.75 30.20 -0.05 52 26 26 26
17.76 29.13 -0.10 103 26 26 26
17.76 28.05 -0.16 157 26 26 26
17.77 26.98 -0.21 207 26 26 26
17.78 26.98 -0.26 257 26 26 26
17.78 28.05 -0.26 257 26 26 26
17.78 29.13 -0.26 257 26 26 26
17.78 30.20 -0.26 257 26 26 26
17.88 25.90 -0.50 500 26 26 26
17.80 30.20 -0.31 309 26 26 26
17.82 29.13 -0.36 358 26 26 26
17.84 28.05 -0.41 407 26 26 26
17.86 26.98 -0.45 453 26 26 26
17.88 26.98 -0.50 500 26 26 26
17.88 28.05 -0.50 500 26 26 26
17.88 29.13 -0.50 500 26 26 26
17.88 30.20 -0.50 500 26 26 26
18.04 25.90 -0.71 707 26 26 26
17.91 30.20 -0.54 543 26 26 26
17.94 29.13 -0.59 587 26 26 26
17.97 28.05 -0.63 630 26 26 26
18.01 26.98 -0.67 668 26 26 26
18.04 26.98 -0.71 707 26 26 26
18.04 28.05 -0.71 707 26 26 26
18.04 29.13 -0.71 707 26 26 26
18.04 30.20 -0.71 707 26 26 26
18.25 25.90 -0.87 865 26 26 26
18.08 30.20 -0.74 744 26 26 26
18.12 29.13 -0.78 776 26 26 26
18.16 28.05 -0.81 809 26 26 26
18.21 26.98 -0.84 839 26 26 26
18.25 26.98 -0.87 865 26 26 26
18.25 28.05 -0.87 865 26 26 26
18.25 29.13 -0.87 865 26 26 26
18.25 30.20 -0.87 865 26 26 26
18.49 25.90 -0.97 966 26 26 26
18.30 30.20 -0.89 891 26 26 26
18.34 29.13 -0.91 913 26 26 26
18.39 28.05 -0.93 933 26 26 26
18.44 26.98 -0.95 950 26 26 26
18.49 26.98 -0.97 966 26 26 26
18.49 28.05 -0.97 966 26 26 26
18.49 29.13 -0.97 966 26 26 26
18.49 30.20 -0.97 966 26 26 26
18.75 25.90 -1.01 1000 26 26 26
18.54 30.20 -0.98 978 26 26 26
18.59 29.13 -0.99 987 26 26 26
18.65 28.05 -0.99 994 26 26 26
18.70 26.98 -1.00 998 26 26 26
18.75 26.98 -1.01 1000 26 26 26
18.75 28.05 -1.01 1000 26 26 26
18.75 29.13 -1.01 1000 26 26 26
18.75 30.20 -1.01 1000 26 26 26
19.01 25.90 -0.97 966 26 26 26
18.80 30.20 -1.00 998 26 26 26
18.85 29.13 -0.99 994 26 26 26
18.91 28.05 -0.99 987 26 26 26
18.96 26.98 -0.98 978 26 26 26
19.01 26.98 -0.97 966 26 26 26
19.01 28.05 -0.97 966 26 26 26
19.01 29.13 -0.97 966 26 26 26
19.01 30.20 -0.97 966 26 26 26
19.25 25.90 -0.87 865 26 26 26
19.06 30.20 -0.95 950 26 26 26
19.11 29.13 -0.93 933 26 26 26
19.16 28.05 -0.91 913 26 26 26
19.20 26.98 -0.89 891 26 26 26
19.25 26.98 -0.87 865 26 26 26
19.25 28.05 -0.87 865 26 26 26
19.25 29.13 -0.87 865 26 26 26
19.25 30.20 -0.87 865 26 26 26
19.46 25.90 -0.71 707 26 26 26
19.29 30.20 -0.84 839 26 26 26
19.34 29.13 -0.81 809 26 26 26
19.38 28.05 -0.78 776 26 26 26
19.42 26.98 -0.74 744 26 26 26
19.46 26.98 -0.71 707 26 26 26
19.46 28.05 -0.71 707 26 26 26
19.46 29.13 -0.71 707 26 26 26
19.46 30.20 -0.71 707 26 26 26
19.62 25.90 -0.50 500 26 26 26
19.49 30.20 -0.67 668 26 26 26
19.53 29.13 -0.63 630 26 26 26
19.56 28.05 -0.59 587 26 26 26
19.59 26.98 -0.54 543 26 26 26
19.62 26.98 -0.50 500 26 26 26
19.62 28.05 -0.50 500 26 26 26
19.62 29.13 -0.50 500 26 26 26
19.62 30.20 -0.50 500 26 26 26
19.72 25.90 -0.26 257 26 26 26
19.64 30.20 -0.45 453 26 26 26
19.66 29.13 -0.41 407 26 26 26
19.68 28.05 -0.36 358 26 26 26
19.70 26.98 -0.31 309 26 26 26
19.72 26.98 -0.26 257 26 26 26
19.72 28.05 -0.26 257 26 26 26
19.72 29.13 -0.26 257 26 26 26
19.72 30.20 -0.26 257 26 26 26
19.76 25.90 -0.00 0 26 26 26
19.73 30.20 -0.21 207 26 26 26
19.74 29.13 -0.16 157 26 26 26
19.74 28.05 -0.10 103 26 26 26
19.75 26.98 -0.05 52 26 26 26
19.76 26.98 -0.00 0 26 26 26
19.76 28.05 -0.00 0 26 26 26
19.76 29.13 -0.00 0 26 26 26
19.76 30.20 -0.00 0 26 26 26
19.72 25.90 0.26 -257 26 26 26
19.75 30.20 0.05 -52 26 26 26
19.74 29.13 0.10 -103 26 26 26
19.74 28.05 0.16 -157 26 26 26
19.73 26.98 0.21 -207 26 26 26
19.72 26.98 0.26 -257 26 26 26
19.72 28.05 0.26 -257 26 26 26
19.72 29.13 0.26 -257 26 26 26
19.72 30.20 0.26 -257 26 26 26
19.62 25.90 0.50 -500 26 26 26
19.70 30.20 0.31 -309 26 26 26
19.68 29.13 0.36 -358 26 26 26
19.66 28.05 0.41 -407 26 26 26
19.64 26.98 0.45 -453 26 26 26
19.62 26.98 0.50 -500 26 26 26
19.62 28.05 0.50 -500 26 26 26
19.62 29.13 0.50 -500 26 26 26
19.62 30.20 0.50 -500 26 26 26
19.46 25.90 0.71 -707 26 26 26
19.59 30.20 0.54 -543 26 26 26
19.56 29.13 0.59 -587 26 26 26
19.53 28.05 0.63 -630 26 26 26
19.49 26.98 0.67 -668 26 26 26
19.46 26.98 0.71 -707 26 26 26
19.46 28.05 0.71 -707 26 26 26
19.46 29.13 0.71 -707 26 26 26
19.46 30.20 0.71 -707 26 26 26
19.25 25.90 0.87 -865 26 26 26
19.42 30.20 0.74 -744 26 26 26
19.38 29.13 0.78 -776 26 26 26
19.34 28.05 0.81 -809 26 26 26
19.29 26.98 0.84 -839 26 26 26
19.25 26.98 0.87 -865 26 26 26
19.25 28.05 0.87 -865 26 26 26
19.25 29.13 0.87 -865 26 26 26
19.25 30.20 0.87 -865 26 26 26
18.75 25.09 -0.00 0 26 26 26
11.75 33.35 -1.73 612 26 26 26
11.27 33.35 -1.93 684 26 26 26
10.75 33.35 -2.00 707 26 26 26
10.23 33.35 -1.93 684 26 26 26
9.75 33.35 -1.73 612 26 26 26
9.34 33.35 -1.41 500 26 26 26
9.02 33.35 -1.00 352 26 26 26
8.82 33.35 -0.52 184 26 26 26
8.75 33.35 -0.00 0 26 26 26
8.82 33.35 0.52 -184 26 26 26
9.02 33.35 1.00 -352 26 26 26
9.34 33.35 1.41 -500 26 26 26
9.75 33.35 1.73 -612 26 26 26
10.23 33.35 1.93 -684 26 26 26
10.75 33.35 2.00 -707 26 26 26
11.27 33.35 1.93 -684 26 26 26
11.75 33.35 1.73 -612 26 26 26
12.16 33.35 1.41 -500 26 26 26
12.48 33.35 1.00 -352 26 26 26
12.68 33.35 0.52 -184 26 26 26
12.75 33.35 -0.00 0 26 26 26
12.68 33.35 -0.52 184 26 26 26
12.48 33.35 -1.00 352 26 26 26
12.16 33.35 -1.41 500 26 26 26
11.70 31.60 -1.65 865 26 26 26
12.09 31.60 -1.34 707 26 26 26
12.40 31.60 -0.95 500 26 26 26
12.59 31.60 -0.49 257 26 26 26
12.65 31.60 -0.00 0 26 26 26
12.59 31.60 0.49 -257 26 26 26
12.40 31.60 0.95 -500 26 26 26
12.09 31.60 1.34 -707 26 26 26
11.70 31.60 1.65 -865 26 26 26
11.24 31.60 1.84 -966 26 26 26
10.75 31.60 1.90 -1000 26 26 26
10.26 31.60 1.84 -966 26 26 26
9.80 31.60 1.65 -865 26 26 26
9.41 31.60 1.34 -707 26 26 26
9.10 31.60 0.95 -500 26 26 26
8.91 31.60 0.49 -257 26 26 26
8.85 31.60 -0.00 0 26 26 26
8.91 31.60 -0.49 257 26 26 26
9.10 31.60 -0.95 500 26 26 26
9.41 31.60 -1.34 707 26 26 26
9.80 31.60 -1.65 865 26 26 26
10.26 31.60 -1.84 966 26 26 26
10.75 31.60 -1.90 1000 26 26 26
11.24 31.60 -1.84 966 26 26 26
11.25 31.27 -0.87 295 26 26 26
11.46 31.27 -0.71 242 26 26 26
11.62 31.27 -0.50 169 26 26 26
11.72 31.27 -0.26 88 26 26 26
11.76 31.27 -0.00 0 26 26 26
11.72 31.27 0.26 -88 26 26 26
11.62 31.27 0.50 -169 26 26 26
11.46 31.27 0.71 -242 26 26 26
11.25 31.27 0.87 -295 26 26 26
11.01 31.27 0.97 -329 26 26 26
10.75 31.27 1.01 -341 26 26 26
10.49 31.27 0.97 -329 26 26 26
10.25 31.27 0.87 -295 26 26 26
10.04 31.27 0.71 -242 26 26 26
9.88 31.27 0.50 -169 26 26 26
9.78 31.27 0.26 -88 26 26 26
9.74 31.27 -0.00 0 26 26 26
9.78 31.27 -0.26 88 26 26 26
9.88 31.27 -0.50 169 26 26 26
10.04 31.27 -0.71 242 26 26 26
10.25 31.27 -0.87 295 26 26 26
10.49 31.27 -0.97 329 26 26 26
10.75 31.27 -1.01 341 26 26 26
11.01 31.27 -0.97 329 26 26 26
10.30 30.20 -0.89 891 26 26 26
10.34 29.13 -0.91 913 26 26 26
10.39 28.05 -0.93 933 26 26 26
10.44 26.98 -0.95 950 26 26 26
10.49 25.90 -0.97 966 26 26 26
10.49 26.98 -0.97 966 26 26 26
10.49 28.05 -0.97 966 26 26 26
10.49 29.13 -0.97 966 26 26 26
10.49 30.20 -0.97 966 26 26 26
10.75 25.90 -1.01 1000 26 26 26
10.54 30.20 -0.98 978 26 26 26
10.59 29.13 -0.99 987 26 26 26
10.65 28.05 -0.99 994 26 26 26
10.70 26.98 -1.00 998 26 26 26
10.75 26.98 -1.01 1000 26 26 26
10.75 28.05 -1.01 1000 26 26 26
10.75 29.13 -1.01 1000 26 26 26
10.75 30.20 -1.01 1000 26 26 26
11.01 25.90 -0.97 966 26 26 26
10.80 30.20 -1.00 998 26 26 26
10.85 29.13 -0.99 994 26 26 26
10.91 28.05 -0.99 987 26 26 26
10.96 26.98 -0.98 978 26 26 26
11.01 26.98 -0.97 966 26 26 26
11.01 28.05 -0.97 966 26 26 26
11.01 29.13 -0.97 966 26 26 26
11.01 30.20 -0.97 966 26 26 26
11.25 25.90 -0.87 865 26 26 26
11.06 30.20 -0.95 950 26 26 26
11.11 29.13 -0.93 933 26 26 26
11.16 28.05 -0.91 913 26 26 26
11.20 26.98 -0.89 891 26 26 26
11.25 26.98 -0.87 865 26 26 26
11.25 28.05 -0.87 865 26 26 26
11.25 29.13 -0.87 865 26 26 26
11.25 30.20 -0.87 865 26 26 26
11.46 25.90 -0.71 707 26 26 26
11.29 30.20 -0.84 839 26 26 26
11.34 29.13 -0.81 809 26 26 26
11.38 28.05 -0.78 776 26 26 26
11.42 26.98 -0.74 744 26 26 26
11.46 26.98 -0.71 707 26 26 26
11.46 28.05 -0.71 707 26 26 26
11.46 29.13 -0.71 707 26 26 26
11.46 30.20 -0.71 707 26 26 26
11.62 25.90 -0.50 500 26 26 26
11.49 30.20 -0.67 668 26 26 26
11.53 29.13 -0.63 630 26 26 26
11.56 28.05 -0.59 587 26 26 26
11.59 26.98 -0.54 543 26 26 26
11.62 26.98 -0.50 500 26 26 26
11.62 28.05 -0.50 500 26 26 26
11.62 29.13 -0.50 500 26 26 26
11.62 30.20 -0.50 500 26 26 26
11.72 25.90 -0.26 257 26 26 26
11.64 30.20 -0.45 453 26 26 26
11.66 29.13 -0.41 407 26 26 26
11.68 28.05 -0.36 358 26 26 26
11.70 26.98 -0.31 309 26 26 26
11.72 26.98 -0.26 257 26 26 26
11.72 28.05 -0.26 257 26 26 26
11.72 29.13 -0.26 257 26 26 26
11.72 30.20 -0.26 257 26 26 26
11.76 25.90 -0.00 0 26 26 26
11.73 30.20 -0.21 207 26 26 26
11.74 29.13 -0.16 157 26 26 26
11.74 28.05 -0.10 103 26 26 26
11.75 26.98 -0.05 52 26 26 26
11.76 26.98 -0.00 0 26 26 26
11.76 28.05 -0.00 0 26 26 26
11.76 29.13 -0.00 0 26 26 26
11.76 30.20 -0.00 0 26 26 26
11.72 25.90 0.26 -257 26 26 26
11.75 30.20 0.05 -52 26 26 26
11.74 29.13 0.10 -103 26 26 26
11.74 28.05 0.16 -157 26 26 26
11.73 26.98 0.21 -207 26 26 26
11.72 26.98 0.26 -257 26 26 26
11.72 28.05 0.26 -257 26 26 26
11.72 29.13 0.26 -257 26 26 26
11.72 30.20 0.26 -257 26 26 26
11.62 25.90 0.50 -500 26 26 26
11.70 30.20 0.31 -309 26 26 26
11.68 29.13 0.36 -358 26 26 26
11.66 28.05 0.41 -407 26 26 26
11.64 26.98 0.45 -453 26 26 26
11.62 26.98 0.50 -500 26 26 26
11.62 28.05 0.50 -500 26 26 26
11.62 29.13 0.50 -500 26 26 26
11.62 30.20 0.50 -500 26 26 26
11.46 25.90 0.71 -707 26 26 26
11.59 30.20 0.54 -543 26 26 26
11.56 29.13 0.59 -587 26 26 26
11.53 28.05 0.63 -630 26 26 26
11.49 26.98 0.67 -668 26 26 26
11.46 26.98 0.71 -707 26 26 26
11.46 28.05 0.71 -707 26 26 26
11.46 29.13 0.71 -707 26 26 26
11.46 30.20 0.71 -707 26 26 26
11.25 25.90 0.87 -865 26 26 26
11.42 30.20 0.74 -744 26 26 26
11.38 29.13 0.78 -776 26 26 26
11.34 28.05 0.81 -809 26 26 26
11.29 26.98 0.84 -839 26 26 26
11.25 26.98 0.87 -865 26 26 26
11.25 28.05 0.87 -865 26 26 26
11.25 29.13 0.87 -865 26 26 26
11.25 30.20 0.87 -865 26 26 26
11.01 25.90 0.97 -966 26 26 26
11.20 30.20 0.89 -891 26 26 26
11.16 29.13 0.91 -913 26 26 26
11.11 28.05 0.93 -933 26 26 26
11.06 26.98 0.95 -950 26 26 26
11.01 26.98 0.97 -966 26 26 26
11.01 28.05 0.97 -966 26 26 26
11.01 29.13 0.97 -966 26 26 26
11.01 30.20 0.97 -966 26 26 26
10.75 25.90 1.01 -1000 26 26 26
10.96 30.20 0.98 -978 26 26 26
10.91 29.13 0.99 -987 26 26 26
10.85 28.05 0.99 -994 26 26 26
10.80 26.98 1.00 -998 26 26 26
10.75 26.98 1.01 -1000 26 26 26
10.75 28.05 1.01 -1000 26 26 26
10.75 29.13 1.01 -1000 26 26 26
10.75 30.20 1.01 -1000 26 26 26
10.49 25.90 0.97 -966 26 26 26
10.70 30.20 1.00 -998 26 26 26
10.65 29.13 0.99 -994 26 26 26
10.59 28.05 0.99 -987 26 26 26
10.54 26.98 0.98 -978 26 26 26
10.49 26.98 0.97 -966 26 26 26
10.49 28.05 0.97 -966 26 26 26
10.49 29.13 0.97 -966 26 26 26
10.49 30.20 0.97 -966 26 26 26
10.25 25.90 0.87 -865 26 26 26
10.44 30.20 0.95 -950 26 26 26
10.39 29.13 0.93 -933 26 26 26
10.34 28.05 0.91 -913 26 26 26
10.30 26.98 0.89 -891 26 26 26
10.25 26.98 0.87 -865 26 26 26
10.25 28.05 0.87 -865 26 26 26
10.25 29.13 0.87 -865 26 26 26
10.25 30.20 0.87 -865 26 26 26
10.04 25.90 0.71 -707 26 26 26
10.21 30.20 0.84 -839 26 26 26
10.16 29.13 0.81 -809 26 26 26
10.12 28.05 0.78 -776 26 26 26
10.08 26.98 0.74 -744 26 26 26
10.04 26.98 0.71 -707 26 26 26
10.04 28.05 0.71 -707 26 26 26
10.04 29.13 0.71 -707 26 26 26
10.04 30.20 0.71 -707 26 26 26
9.88 25.90 0.50 -500 26 26 26
10.01 30.20 0.67 -668 26 26 26
9.97 29.13 0.63 -630 26 26 26
9.94 28.05 0.59 -587 26 26 26
9.91 26.98 0.54 -543 26 26 26
9.88 26.98 0.50 -500 26 26 26
9.88 28.05 0.50 -500 26 26 26
9.88 29.13 0.50 -500 26 26 26
9.88 30.20 0.50 -500 26 26 26
9.78 25.90 0.26 -257 26 26 26
9.86 30.20 0.45 -453 26 26 26
9.84 29.13 0.41 -407 26 26 26
9.82 28.05 0.36 -358 26 26 26
9.80 26.98 0.31 -309 26 26 26
9.78 26.98 0.26 -257 26 26 26
9.78 28.05 0.26 -257 26 26 26
9.78 29.13 0.26 -257 26 26 26
9.78 30.20 0.26 -257 26 26 26
9.74 25.90 -0.00 0 26 26 26
9.77 30.20 0.21 -207 26 26 26
9.76 29.13 0.16 -157 26 26 26
9.76 28.05 0.10 -103 26 26 26
9.75 26.98 0.05 -52 26 26 26
9.74 26.98 -0.00 0 26 26 26
9.74 28.05 -0.00 0 26 26 26
9.74 29.13 -0.00 0 26 26 26
9.74 30.20 -0.00 0 26 26 26
9.78 25.90 -0.26 257 26 26 26
9.75 30.20 -0.05 52 26 26 26
